# 3D point list with one line of data per point:
#   POINT3D_ID, X, Y, Z, R, G, B, ERROR, TRACK[] as (IMAGE_ID, POINT2D_IDX)
# Number of points: 386, mean track length: 4.7088538837588265
814 1.4019945846432309 0.72466579835797418 2.5798471017729394 80 78 65 0.65214601251575521 33 3 31 576 30 467 28 1202
1158 1.3020256297932034 0.91120826417629119 2.4396611588783008 255 249 240 0.78660848557141139 26 582 25 291 22 296
815 1.3138630841727141 0.89634688814155306 2.4576029678577482 163 151 137 0.17344279455040879 32 599 31 580 30 36
816 1.3178110198430881 0.93502323656610276 2.3867242886818216 43 34 19 0.66673056063344871 32 959 31 581 30 815
818 0.97349793827287356 1.3574298347100431 2.3018074286259669 131 120 103 0.68312653301727666 33 732 31 608 30 825
1186 1.1827697119711049 1.0544754569079231 2.3479156563208647 100 87 68 0.66108653431292541 25 809 24 478 23 325
819 0.48272608691718388 2.4198125460552253 2.6734766473544003 142 132 131 0.51009135025475194 35 1399 31 718 36 1191 39 739
1703 4.0308531136236381 8.0999372598987591 -2.5742982111049928 179 176 143 0.35888996902445192 10 1128 9 936 8 874 5 913 4 683 7 453 3 632 6 287 1 275 2 172
820 0.16020185604512988 2.6912294063967392 2.7774080634347409 63 59 48 0.21591282339118242 32 419 31 744 30 620
1697 5.1846535906581321 8.5328428288770848 -2.2807075512136143 141 141 105 0.28906996844591826 10 1135 9 854 8 883 5 918 4 610 7 405 6 236
1488 1.1762476913977267 1.0938094618998453 2.3210271713588639 175 166 157 0.18980312387806975 15 419 14 25
822 0.35486932370241986 2.950106282253639 2.759813108310829 154 150 138 0.66468043061285442 32 821 33 802 37 504 31 774 30 893 38 1237 39 1283 29 548 27 909
823 -1.9059373182991326 3.5059126690064577 2.5056136563576543 181 177 174 0.28778088319393363 34 1348 31 784 30 643
824 -0.27979554295062703 3.2675555946031105 2.7447025545128998 179 178 174 0.20087100915429143 33 615 31 787 28 550
826 1.0153229281516389 3.6859236359148877 2.3280704646891093 166 165 161 0.25234314682350911 35 1318 31 894 39 1145 28 1136 26 1188 37 858
1194 1.1720960166965622 1.2881302131855983 2.364994800139443 163 155 144 0.5303525642165271 25 837 24 529 23 375
827 2.058387874099977 3.6055766790162851 2.4212289268998739 156 155 151 0.26073497505590865 36 1091 31 907 35 1293
1711 1.3457933674072522 0.75916281228030102 2.4390911540517237 108 104 92 0.34970173042429664 10 1262 9 1033 8 1031 4 754 7 522 3 763 1 323 2 216
828 1.539116080447211 3.7434574918873897 2.2622020326383243 203 199 196 0.27954343788453806 35 1328 31 915
1705 -0.13041401215803708 1.906821589406885 3.9945987239487839 100 94 85 0.36695983450988334 10 1217 9 966 8 1006 3 723
1496 0.17984047792496177 1.6737284513520554 2.8130992723980874 162 156 158 0.81198124483431222 15 747 14 396 13 328 12 445 11 850 10 908 9 491
830 1.2100676321658737 1.0682836673709595 2.3549347686384046 98 85 58 0.84625824435421448 33 720 34 1142 36 1126 31 940 39 1153 27 863
831 1.2975506688995573 1.0713410433799873 2.3990654296846645 87 78 61 0.079399776439912431 32 963 31 941 39 943
832 1.2107993217647275 1.1453191663456606 2.3208889445535879 63 47 25 0.37113515454130946 32 1131 31 944 30 1003
834 1.2581247617852371 1.9087857586241608 2.1730849262409917 177 164 155 0.56361407879477377 32 1152 31 976 30 1030
1266 1.0788427197706565 3.0264216735347231 2.6935271698892103 148 145 130 1.4398479170522911 28 1487 41 369 42 282
835 1.5779914676268485 1.9722672897194253 2.3833513657779997 169 163 165 0.59350516423381972 34 1220 31 980 29 538 32 722 27 902 26 1429
1783 3.9551729656960233 8.1746773217285433 -2.1295288410470374 120 119 88 1.1148480831779728 10 1138 8 962 4 615 7 461
836 0.010982432743303102 3.173058581535126 2.761363915965187 155 156 142 1.0564004976617698 38 431 31 1009 30 897 39 466
1777 1.1733261692688226 0.70266961632869207 3.8350058455383396 143 137 141 0.4507090822133451 9 873 8 901 7 426
838 2.7305009256580139 3.0166440529048986 2.783114481082178 215 210 204 0.36503785534303651 32 854 31 1034 30 409
839 2.6397993310583052 3.183170726273957 3.3239709313529664 131 123 112 0.2765060806623213 32 1066 31 1036
840 -0.20534942162404293 3.5478344678502571 2.4537021204844192 194 193 189 0.49013543979571361 35 1438 31 1039 39 1229
842 2.8684083903984137 3.1749080108356154 2.8661389864466411 159 158 154 0.20924229066537101 32 1082 31 1050 28 1387 26 1275
1274 2.1148728532393481 1.3087726369716768 2.933598873122238 96 89 93 1.6592328050957459 27 1086 26 1559 25 918 24 589 41 436
843 -0.87922982310340203 3.7569202775208899 2.2676906889481923 109 105 102 0.52159532171787715 38 1041 31 1055 30 927 32 1111 39 1109 17 1036 18 1948
844 -0.87948419083375384 3.7570311493443347 2.2686734517816025 109 105 102 0.38649612719203646 38 1042 31 1056 30 928 37 990 17 1037 18 1949
1785 0.62024094854317258 1.9105164808715285 2.2922963386121071 103 95 84 0.96192250383989308 9 988 8 967 5 980 6 317 7 422
846 2.2668380823493224 3.4091310624547688 2.6119735819851031 188 187 183 0.35137300004009137 33 837 36 1259 31 1070 35 1264 39 1241
847 1.2323699615415453 1.05033897863986 2.3319447985479655 253 246 219 0.38735532578868154 32 1127 31 1109 30 999
850 -0.47924285506084308 3.8550012191099432 2.1664538790753292 171 167 164 0.64800548813571091 38 1251 31 1153 30 1044 39 1250 28 1447 29 580 40 357 18 2178 20 307
1059 1.2193648365667404 1.1084050117009157 2.3240106076015006 248 234 209 0.38911976598092285 28 801 27 426 26 596
1218 0.06637389100334079 2.4192073314973683 2.9834621981463965 226 223 213 1.9620378944553136 27 1079 26 1549 25 910 40 503 34 1636 38 1346 35 1589 36 1535 37 1130 33 1059 39 1375 39 1381
851 1.0877350557583789 1.1557953411327611 2.3137995918485501 197 188 180 1.4041280093352366 32 1219 31 1164 29 755
1735 0.33329282604029847 1.117109630689936 3.5413641902965391 167 158 161 0.18897748567132636 11 484 8 250 5 378
852 1.1505027619864965 2.2057461027331344 2.3281494445998305 117 107 108 0.15668293631948962 37 1051 31 1180 30 1084
1729 0.90436169380687881 0.61290273866323353 3.3385625855385528 160 154 158 0.33084046627338104 10 624 8 97 5 187 11 116
854 1.4172413813711293 0.80475838147007306 2.5363726429706612 58 50 46 0.74549752949841841 32 1237 31 1211 30 1122 28 1521 29 800
1572 0.79867895941402456 0.67444353400399448 3.2230028149125904 192 186 190 0.33647250098308396 12 398 11 792 10 620 9 101 8 93 5 620 4 357
855 1.1525269487816052 1.1468333483607829 2.3229816521683908 100 88 72 0.62071029515165244 33 978 31 1213 30 1125
858 -0.0043214687480363813 2.0188527601692163 3.2297517293468752 229 226 217 0.78307030440700098 38 1334 31 1258 30 1164
1067 3.0510365803794324 2.3487485394485956 3.6992670870184137 194 193 189 0.18421759981798613 30 328 27 631 26 1183
1226 0.61298956049823017 1.5843044477592929 2.4224729927976703 150 135 114 0.24606237187261745 24 420 23 261 22 780
859 1.1251080100304411 0.92812510504013057 2.7214841687920601 181 176 176 1.2515263607482419 32 1291 31 1262 30 1178
1737 0.44179783128996702 1.0540954235129818 3.7088533382589661 169 160 165 0.27195139823780851 9 294 11 933 8 275 3 397
862 0.78464280455392554 1.5023783936660211 2.3827557363751293 134 119 121 0.19311213852451775 37 340 33 63 31 96 34 95 38 45 36 90 30 109 39 608
1580 0.12023909086514276 2.8202972138507292 3.0127843034264878 69 62 52 1.089606941276301 12 312 11 950
863 0.72358843858169009 1.6229491051001022 2.386739035694053 114 104 106 0.3998434748688755 36 122 32 152 31 114 38 536 37 343 30 522
864 1.3279262959633846 1.0889717912436725 2.46123746738518 94 82 68 0.87550154846893657 33 27 32 59 31 590 34 16 35 15
866 1.1826057602733742 1.9508590031264776 2.2629507817963121 77 64 54 1.4875695693628117 34 1572 34 1550 33 986 32 1198 31 1203 36 1453 38 1266 37 1049 30 1082 39 1297 28 1479 29 770
1170 0.92947142912695813 2.3820388402907477 2.514795369027111 100 90 89 1.346753650823155 26 1529 25 892 23 398
867 1.7106741594087245 3.4276037145833795 2.5917568617660312 170 166 163 0.2829408382806694 36 1037 38 782 33 663 32 919 31 862 34 1336 35 1267 37 819 30 953 29 443
1681 0.27934873014824096 1.186243729553913 3.5124809466542457 151 146 147 0.39916039277014331 10 409 9 561 8 261
870 1.429436579849007 0.64227915208355235 2.6053563659035177 233 229 226 0.19722173632987758 31 1 30 14 27 7
871 1.4842790741464513 0.77574610716894654 2.6503745987314327 170 160 159 0.80584747838019111 31 11 32 24 30 31 29 255
872 1.192885245122304 1.1785959428058266 2.3730690660823601 69 52 44 0.94030866713294647 31 596 30 69 28 59
874 1.099935580109721 2.0274063327734084 2.0394780860347264 150 134 118 2.1557178344990975 32 291 30 213
1178 0.37490097127304772 2.9232004257195721 2.7732438552699663 130 128 116 1.2368049282583329 25 787 24 355 40 444 23 207
875 -0.4508187851531068 2.4909074966156233 3.5184742572458161 202 201 197 0.11809959951322872 38 350 30 234 39 368
1695 5.6666335404828336 8.8055401803203708 -2.6479286992352202 204 202 179 0.33849108476506129 10 1030 9 850 8 878
876 1.3263393087489688 2.2525056936141237 2.3703719322046091 127 116 120 0.6114877972928594 33 208 38 628 30 274 39 721 28 451 27 279 26 331
1689 4.3226874011350933 8.0884928042220174 -1.9394875901303843 172 167 127 0.54433519467355695 10 1044 9 711 8 504 5 807 4 343 6 188
878 2.3607117448022743 2.1066390702258611 3.3242590336709585 174 169 165 1.9228595560627655 35 791 30 290 25 416
879 2.2917851967008476 2.2497453209256637 3.1802793040784385 218 213 209 2.1038081809260687 35 810 30 297 39 763 32 373
880 -0.66162803620165356 3.0178225028171459 2.9769513758553141 219 218 214 0.25842798860201083 33 574 38 416 30 308 17 777
882 0.63999493365969562 2.8351207784547769 2.6148822204020483 201 197 186 0.2492125688079658 35 464 30 323 36 489 39 435
1767 4.4063056095651696 8.0079981763780665 -1.7559766962575656 208 202 170 0.27391040703473857 10 1047 8 753 5 586
884 2.1057339306058176 3.5446682064887636 2.4244153478597359 184 183 179 0.088783356414216308 33 686 30 453
1761 1.5348234710156143 0.6788011982354567 2.610663203371705 213 212 208 0.88825437393928142 9 691 8 733 4 677 3 727 1 274
886 1.1356583593281038 1.4183169620538589 2.3292517622322206 130 119 97 1.9399999836307953 31 961 30 504 26 1305 27 878 25 645
887 1.5097444868182479 1.3273667582424107 2.4039650738132483 152 148 149 0.33528116641570876 31 616 38 15 30 506
888 1.0019052341658465 1.7554849639628349 2.1996499107258005 82 67 42 0.64814724434091175 31 151 30 546 27 482
890 1.3576245294461762 1.6724952515429872 2.3065981755347851 161 153 156 0.18144892559725068 37 349 30 549 29 300
1775 -2.719506924409107 -1.4669250931363196 3.7771158827587037 102 93 78 0.56294905301009779 9 431 8 885
892 1.0597210271008335 2.0841136909378717 2.1749205608438147 163 148 127 1.1926119820400085 32 319 30 582 39 1012 29 330
1769 0.26569125206016564 1.1752785995762769 3.3542959575929565 184 178 180 0.23324664956521532 9 742 11 1251 8 772 4 530 7 352
894 0.99489343171795774 3.2272565200401564 2.7770457654373231 79 75 66 0.48606494407775058 35 1420 36 1239 30 695 28 1319
895 0.77385219233614133 3.3181871008620343 2.7889586469063583 187 186 181 0.64303980713189368 31 813 30 698 27 783
1558 0.66829553777474882 1.8483744528031474 2.2855424446093 191 176 168 0.54924566162363264 18 2433 19 298 20 569
897 0.9336535265358038 3.5350124373724103 2.4758618198070468 195 194 190 0.29738631852902814 38 1021 30 737 39 1114 31 859
898 2.9108997795737714 3.1607287356378739 2.8613765259002113 165 164 160 0.17510793552331963 32 885 30 750 39 871
1043 1.3578029989356155 1.6719416317659332 2.3021817375482967 161 152 154 0.3053213406650877 37 350 30 548 29 301 38 77 36 125
899 2.9116916238012678 3.160072388624708 2.8658597110972481 165 164 160 0.20459674509359713 38 737 30 751 39 872
901 2.1068651111131249 3.4800923185330301 2.5393010232714985 177 176 172 0.16733175019479415 33 844 34 1051 30 777 39 1142
1556 0.027542390628696914 3.0265204277185873 2.58397608749529 185 182 177 0.55442059596039972 17 1435 19 286 20 532
903 1.345784706949146 1.0014303123982338 2.4180657675149115 253 247 231 1.2231026559897691 34 1140 30 818 36 697 29 664
1566 0.5735235562088864 1.8665941353791133 2.286611023656008 206 198 181 1.4595183885387009 12 87 11 97 10 102
905 1.0019503962357581 1.7735471136816221 2.3867079358104712 100 86 60 1.9754836097910473 30 848 39 986 29 522
906 -0.22038299413062995 3.395477259390784 2.6133593821547358 190 189 185 0.3510742783073067 37 813 30 900 28 1304 18 1950
1051 -1.1323535136896374 2.234286099879589 3.7247444385502484 204 203 199 0.67286544171413787 29 298 30 555 27 92
907 3.145074092093203 2.9045436477335107 3.1298588032100998 187 183 180 0.62199214870631458 31 1025 34 1278 30 933
909 1.2039016257400255 1.4073588622338464 2.3560731530105214 168 157 160 1.2478245225874351 31 1166 30 1012 28 1495 41 351 42 340
1079 1.4001255385620741 0.86272622203119986 2.5378809084120975 156 141 146 0.97475997753153998 28 1402 27 857 25 807 23 324 26 1453 21 725
910 0.7960029452300692 1.8560471928310598 1.8705570307079911 0 0 0 0.84683112606144517 32 990 33 951
1564 -0.15976652345494513 1.656795567191448 3.8499687146905477 81 75 61 0.13270870528647233 17 892 20 107
911 1.2280183491036998 1.8455944557044541 2.2923334756017146 108 95 77 0.20050216874723284 32 993 30 1026 29 767
1638 0.91878146610959488 0.76218943953448826 3.8540517487294781 118 112 116 0.34147232254937593 11 1127 10 926 9 548 5 861
913 3.3749061585323332 3.18994219025008 2.8452801283171736 163 159 156 0.33594929896189391 36 1371 30 1058 29 780
914 1.5710330611411463 0.64347292038979964 2.7686398373131351 178 177 175 1.5379405041671432 33 711 30 1069 28 1400
1123 3.5259475531845395 0.84251014712492256 5.2138573895673934 198 197 193 0.72574454136477495 27 557 26 1121 28 938
915 1.0154840116616906 1.5503090435005773 2.2483182854409525 112 101 75 1.0791856365660928 31 1167 30 1073 29 784 27 949 26 1398 25 649
917 2.7260325530788871 2.9903701107180787 2.8254851859593519 187 183 172 0.71492690165187089 36 1459 30 1118 29 796 40 471
1087 0.33370080878259828 2.8963581829830298 2.7199268621603778 197 195 182 0.36943889047904505 28 1444 27 907 40 342
918 -0.28961391942982412 2.6454080829487276 3.3927925573157411 0 0 0 0.36530793771959758 32 1251 34 1599
1636 0.28871434849557281 1.250314796409012 2.9886273685586242 167 161 163 0.47106075094266031 12 581 10 900 9 483 4 368
919 0.67386773698651514 1.7431367430948899 2.3530778659454183 158 150 148 1.4002290733348162 38 1325 30 1162 39 1346 28 1545 29 845 27 1032 26 1481 25 873 24 551 40 456
1646 0.50428141914945024 0.95812122357728891 3.6255215125561517 144 138 142 0.56418970619557796 11 1254 10 1079 9 747 5 943
921 0.28410375904696422 2.8005707926438941 2.6635064112357685 228 224 213 1.6008469881874721 32 1309 30 1195 28 1589 27 1082 26 1552
922 -0.71832251862588814 2.8862021400918509 3.1162771530852726 171 170 166 0.21805091437427779 38 964 32 1033 30 881 34 1456 35 1410 31 1000 28 1276
1131 0.62626540985300327 2.760811366123348 2.400876767631678 139 135 124 1.0495546247280507 27 770 26 1334
923 0.50072230234538351 2.7726620558796702 2.7175324511055532 144 140 129 0.85876083964356476 31 376 34 1271 38 1236 35 1211 36 1356 33 251 31 759 39 1204
925 1.1756955590728386 1.8484709782278221 2.1574408125975317 255 249 222 0.56809883885791268 35 730 36 785 32 698 31 973 30 854 37 1015 33 891
1031 0.52480163785551315 2.1801966345761068 2.5682650316219311 140 135 132 1.2006945539524025 28 1502 29 810 27 996
926 1.1727015303363317 2.1761438257136581 2.3221947676040244 143 133 134 1.1274203696584171 32 1007 30 870 35 787 36 305 32 745 39 709 28 953 29 113 27 760 25 366 24 246 41 45
1644 5.9143847289918128 8.0333822684185652 -1.6199567476086707 209 205 198 0.89990662553688738 12 703 10 1043 8 506 5 578 7 210
927 0.26243504444216925 3.0191321980079318 2.6964318141925983 158 154 143 0.94883459664623016 34 1293 35 1232 36 1224 33 806 37 778 31 1007 30 896 38 1239 32 1168 39 1209 28 1300 26 1337 25 533 25 685 40 409 42 317
1234 1.1393688111577009 2.0367396482264546 2.2793190057187656 84 71 62 1.3536675896828456 24 579 23 417 22 923
931 1.99833565065397 2.1104554223620235 2.6511800442022158 176 170 172 0.32806977105841784 38 247 39 318 28 523 26 396 25 173
1745 0.5871594888385081 1.8115333152823772 2.3081292646977074 229 217 205 0.31618888996844807 9 465 8 521 7 230
934 1.1906667123830181 1.0811280707480535 2.3664046488192345 246 229 200 0.55564807941770811 36 704 39 568 34 10
1588 0.1677864759579554 1.6746766172125616 2.8550002820282767 178 172 174 0.51892335607546813 13 238 11 1115 9 497
935 1.0290997405394302 1.4350791309751636 2.2366251444982646 75 60 39 0.53202277053862679 34 74 36 1141 39 593
938 2.6232472835439231 3.030621913562503 2.7486827968710403 170 162 151 0.55607202936197242 31 820 34 496 39 836 36 516
1083 0.84668270396927325 1.7475389696485837 2.2501163655846428 140 130 102 1.7910024065279415 28 1417 27 880 26 1402 25 657 24 332 40 332 41 248
1242 1.133222799385079 1.1569380075445799 2.2836896095175612 85 74 70 0.69774560373926775 25 747 22 687 21 431
939 2.6245030278650319 3.0301778931144749 2.7499577915020996 170 162 151 0.48797498973375381 31 819 39 837 28 721
1753 0.36698598485337525 1.0761207207411505 3.4591525906091034 142 136 138 0.54330118945442296 9 529 8 585 4 532 7 263
942 2.6436731685457726 3.4969530619257396 2.5038801432544124 190 189 185 0.019605583397185673 32 580 39 938
1596 0.59011199092986999 0.86778153620276099 3.5935445690309549 162 157 161 0.48761590508170727 12 677 11 1313 10 1160 9 874 8 903 4 629 7 427
943 1.3226145513536367 1.0822658871412294 2.3783805715513058 252 239 226 0.76820213412132765 30 60 39 945 28 808 29 25
1542 1.145250505128381 1.0849207816308395 2.2620802554702899 184 168 145 0.53771353204466532 13 179 14 338 12 546
945 3.7748545439566987 2.0558835698888913 4.0007042635561785 201 198 195 0.32131466676022213 32 748 39 1045 27 797 30 886 25 801
946 1.6641884846528634 3.0121632926881636 2.7289547362981392 160 152 139 0.38285904637936041 31 801 39 1073
1027 2.2768650497237659 1.5544385545497974 2.949436092169512 156 145 151 0.34333498481654412 28 1481 38 892 29 771 27 969
947 2.8652783242613036 2.8697189718160452 3.1586835068836212 189 185 182 0.20862048542110839 30 703 39 1075 29 587 27 825
949 1.3429002104393768 3.349689067045154 2.6652665576445065 197 193 190 0.38377529032765118 36 1023 39 1100 28 1096 25 569
950 3.1769531323908171 3.2332436414135541 2.7834504663329467 167 163 160 0.37205876324819886 30 976 33 625 39 1120
1540 0.77016863076107311 1.4070807129193317 2.245168429472383 252 247 228 0.53511768433651896 13 43 12 40 11 56 10 64
951 0.88078715844351196 2.2045517442547737 2.0242520327317135 110 100 90 1.6172606431931225 35 1181 36 853 39 1195
1550 0.36637299087314934 1.145081292886319 3.4070485136095403 165 159 163 1.5873707604951126 13 511 12 839 11 1387 10 1265
953 2.4859752314999572 3.0839037424750675 2.7102818531905943 0 0 0 0.17567803016600081 34 1301 37 959
954 2.9316281225182843 3.0985676045575712 2.9336639904791761 183 179 176 0.24380432920406878 30 949 39 1227 28 1384 26 1381
1035 0.60384567395898403 3.0824940134505168 2.7539503167692989 91 88 77 0.42561901591203904 28 1513 29 839 27 977
955 0.39545311212367684 3.4768734903834471 2.5352145596315578 194 193 189 0.24179239573778472 33 925 39 1232 27 779 26 1143
957 1.1260178071677029 3.6594181714027361 2.3516550606397177 187 183 180 0.28552002589458003 35 1445 39 1252 36 1395 27 919 26 1354
1063 0.77241932890942455 1.5781411471479774 2.3768917327093511 197 189 187 0.47817358884034483 37 668 27 456 26 618
958 0.74794692044678612 1.666774823694283 2.3828871201856221 195 186 183 0.45538446054737003 38 1280 39 1293 28 1497
1548 0.076066929699959346 1.7231508021734676 3.4171557945127597 126 114 116 1.5581855613452289 13 500 12 823 9 1025 5 1057
959 0.89909313264614843 3.1000496508439692 2.6324905318663543 162 154 143 1.1066338912021803 30 1139 39 1341 28 1533 29 824 27 1023 26 1493 40 481 41 405
1622 0.79867895941402423 0.67444353400399426 3.2230028149125904 198 192 196 0.33647250098308706 11 791 12 399 10 621 9 100 8 92 4 356 5 619
961 2.1779210054049738 3.3595625976353851 2.6590249759640825 168 167 163 0.33145358207388464 33 922 34 1474 32 1181 31 1149 30 1046 39 1237 38 1152 36 1377
962 0.48144334735950389 2.5230983885568907 2.7565230214040319 135 127 120 1.4071714425582851 34 1528 38 1133 35 1404 36 1351 37 942 33 906 32 1163 31 1136 39 1280 38 957 30 289 40 341
1107 -2.5734959512817377 2.7744887142864494 3.1625415216350272 205 201 198 1.2267275271173312 31 290 26 44 32 375
963 1.0379248148657663 1.8261107388483011 2.1750720960010046 124 111 92 0.72010338173563115 36 170 38 110 39 140
965 0.38057679029503672 2.6747490901315478 2.7439033630390481 126 123 115 1.7000849642679681 39 1202 31 999 35 881 37 745 36 922 33 540 38 373 32 425 39 405 30 299 28 1287
1135 0.6373197019330783 1.8332397967173784 2.334899279116101 147 133 98 1.3230340429068994 28 1420 26 1401 25 655
966 1.0074739786806213 1.7698465549485518 2.1497771709214546 138 126 104 1.7287504705231935 30 161 28 208 27 481
1620 1.0716148708971185 0.56216789009635693 2.9133058808532524 184 178 182 0.29099039268641141 11 54 12 47 10 601 9 446 8 501
1317 1.3483301105748142 0.83282961875820982 2.3129698500387135 25 21 20 0.38482330952956023 17 1209 18 2166 16 1002 15 818
967 1.3830740904663361 1.6376694443441056 2.3085149832138527 159 148 152 0.29943563347220031 34 703 28 224 29 73 26 674
970 -0.15372780575458586 2.5492613422394257 3.1166274358206083 193 192 186 0.44252204419175262 39 1044 28 351
1115 1.1006675659503473 1.6532899307234947 2.2512078808256111 242 224 196 0.34147870161314869 28 865 26 656 40 154
971 0.94552498534234342 2.199564277782561 2.365370782826286 150 147 142 0.20689772547654114 38 620 28 360 27 213
973 2.1995235327903595 2.5461683279137972 0.11752754738958571 216 212 208 1.2907692597358382 30 740 28 686
1143 1.201405367953124 1.2939440293421658 2.3045857236980698 163 149 143 0.64141432128358067 27 987 26 1457
974 1.4401564016406407 0.76617224274990747 2.5939341052979894 165 157 155 0.87478324300349652 30 27 28 791 29 252 32 595 27 692 25 741 24 476
1628 0.54935072807570562 0.96816285999527574 3.7663446764099473 114 103 109 0.14542821668809147 11 497 10 736 5 399
1325 1.1269596691337898 1.917934658586834 2.0618480257056273 220 212 199 0.99620903466858868 17 1310 18 2265 16 1103 19 239 20 484
975 1.3300823736626075 1.0862710632736801 2.3624945455584228 255 253 237 0.24087309254697983 39 944 28 807 27 428
1702 4.0428133274202347 8.2548838952382759 -2.7427467295184691 183 180 146 0.64991603989315738 10 1127 9 934 8 872 4 681
977 1.8011751749829898 1.2445197334180531 2.5397248726347383 122 111 117 0.11218047565189813 39 962 28 854
1187 1.3483378585871488 1.0547144659032073 2.4109519831089452 105 91 78 0.57707125600524201 26 1388 24 483 21 727
978 0.83272535902927769 1.7664850974864625 2.2931365194251558 82 65 51 0.38915946432427373 33 426 28 868 26 655 40 158
979 0.75089816463745329 1.9075150312151024 2.3102374438785351 162 153 136 0.33785139798142838 38 900 28 879 29 81
981 1.1660478670764678 2.1783352401391411 2.3319198121003639 148 138 137 0.33708943996279128 39 708 28 954 40 83
1151 1.0342479227355279 1.5054482435368151 2.1112371710614375 179 165 165 1.3209072974985914 27 1047 26 1518 25 885
982 1.4438672279707483 3.2807546673988224 2.7423941533700651 174 173 169 0.19263910877738122 35 981 36 1009 28 1089
1700 1.2985268319774119 0.82479261403049497 2.3929997244083241 47 40 30 0.69969524995368004 10 1125 9 927 8 949 5 977 4 673 7 455 3 623 1 236
1333 1.2327941131005278 0.93536159789204387 2.3344528331521448 19 7 4 0.88290592591251449 17 1334 18 2289 15 903 14 526 13 461 12 783 5 1014
983 3.5493199787442844 2.5470920645310695 3.5148067329249093 192 191 187 0.25997165767730002 35 408 28 1123 27 668 26 964
987 0.88517356834597416 1.3112355805276608 2.3882789091184944 188 177 175 0.33298285019168505 32 1134 28 1408 29 669
989 0.84241014554634908 1.6925138442771572 2.2768584966592358 91 83 60 0.82139953778389674 30 1104 39 1294 28 1498 27 991 26 1399
1095 1.2394112206649712 1.9071320025076974 2.3008377577935382 169 159 156 1.026864916340674 28 1478 27 963 26 1463 25 819 40 399
990 1.4116175257346721 0.80409277118952094 2.5538324786435815 60 53 47 0.61014194274007172 30 1123 28 1520 29 799 27 1005 25 850 24 546 22 875 21 803
1708 6.8090911155712819 8.0713163541224322 -1.7384171932253014 219 216 207 0.60896431316635125 10 1248 9 1011 11 1379 8 995 9 982 5 1064 7 509 6 387
1341 -0.16792113379132564 2.7373483473732136 3.176894432711638 189 185 174 0.39572075292000791 17 1357 18 2314 16 1145
991 0.80239014530926311 1.4724795970404685 2.37080201228915 82 71 68 0.56584387779415646 39 1314 28 1525 27 1008 26 1479 25 836 24 510
1654 0.84935839135066782 1.454621874104165 2.2080076735514931 243 238 217 1.6734540642697642 11 1338 10 1201 6 316
993 0.7732142282183071 2.0287596648793267 2.3271794807474544 96 86 63 1.7027009116346719 39 1348 28 1550 27 1038 26 1505
994 2.024230605127106 1.5547776159544064 2.6846778993142255 187 181 181 0.95732143472966802 39 1334 28 1551 29 834 27 1049 26 1521 25 880 24 558 40 483 23 399 22 913 41 400
1139 -0.21508074034430333 2.6171648562107954 3.2730289647525996 174 174 162 2.194935593824185 27 966 26 1421
995 1.0543458115706934 2.1282796171541998 2.312807407208767 88 79 75 0.84569260855479411 39 1350 28 1553 29 815 38 1304
997 0.95454736562976228 2.1974854816197631 2.3501687245117275 150 139 138 0.93716995778306822 34 839 32 334 30 247 28 359 35 793 38 619 36 855 27 214
998 0.47192059984021051 3.2018380176147252 2.8174251030737354 165 163 159 0.14195501440332672 31 415 30 361 28 1042 35 971 37 533 36 1005 33 613
1652 0.13248942030055932 1.4936562360299348 3.0521738991736487 140 131 134 1.0997942902139273 14 512 10 1161 9 952 4 627
999 1.2987655899027368 1.0841608898900212 2.3851202123144937 77 67 55 1.0955942282824858 33 362 29 24 41 150 42 181 26 1016
1662 0.26819503998235167 1.421148678264363 3.7237629811947839 136 124 128 1.2124916333146958 11 1391 10 1255 9 1045 8 1044 5 1071 4 759 7 529 6 397 1 331
1001 1.08404190530704 2.0106708826109561 2.170361964764997 54 42 18 0.79228178661443593 28 315 30 206 31 235 29 101
1002 2.3162830145448199 3.3549376184315491 2.6715677262512991 223 219 216 0.0048445386639265082 28 747 29 218
1147 0.38832309384746594 3.0545641378629522 4.3454470220564181 134 125 118 3.3419964700848905 27 1001 26 1492
1005 1.3294911584655265 0.91525681531706915 2.4273436449159616 57 49 38 0.59109141856959868 28 795 29 256 27 695
1047 2.6240444638974991 3.1176150803051046 2.9345022105700074 130 122 110 1.9273730627566359 35 941 36 1225 37 960 32 1072 29 201 31 1145 30 1042 28 1489 38 732 31 829
1006 1.3717089351983891 0.93570960358765498 2.4818997691632196 126 116 115 0.44491199107722307 28 1209 29 260 27 696 26 1290 25 636 23 254 22 688 21 441
1660 0.10524808605027418 2.0356901233813041 3.1543704877519088 144 132 134 0.9871764618305594 12 806 10 1244 9 1024 8 1005 5 997 7 496 6 355
1007 1.2071390337599579 1.321566820011908 2.3814115110007239 174 159 162 0.36590189666940881 28 828 29 278 27 450
1606 0.34409637208522043 1.2149574517715711 2.8383138814215982 171 165 167 0.26043920258264647 11 136 10 128 9 108
1009 1.2609912450328253 2.2153090191154119 2.339067372787262 137 127 128 0.21252254831706222 28 966 37 427 29 349
1010 0.38821954399799075 3.2836698162580644 2.7313083855134788 189 188 184 0.18545318081224263 37 802 39 1086 29 388
1091 1.8127843029423663 2.8441261773911677 -0.35091881524444601 180 176 173 1.0986418788554642 31 1100 27 935
1011 1.2569283416351744 3.6269782908985277 2.3883848137621766 199 198 194 0.45380680418460451 33 694 29 446 26 917 24 303 18 172
1013 1.4187744208354143 0.69610379389031452 2.6008169540815844 179 176 169 0.66146712712961531 28 1399 29 492 27 849 25 736
1055 2.1901857957332109 1.7380721738771421 2.7950716615248088 146 135 139 0.38361668471276134 28 401 27 272 26 345
1014 1.4369975547727594 1.243416584461829 2.4090276834713458 189 178 184 0.53147487556787443 39 1163 29 504 27 876 26 1032 23 329 21 700
1604 1.1367813821879216 1.4466470924408077 2.0884024294670325 217 214 204 1.6337255442281957 17 1381 14 524 12 713 11 1212 18 2273 16 1100 15 895 13 360
1015 1.0817816342016595 1.6822556227575267 2.2552825164543435 106 90 58 0.32878249856476438 28 1245 29 518 27 729
1018 0.22650315914063515 3.060299727702402 2.6763729807556267 154 150 139 0.57278721315556624 37 517 29 553 27 771 26 1120 28 1013
1099 1.1498102979141631 1.7356545267381347 2.2648191386486025 159 148 142 0.37277655122672299 29 786 27 1015 26 1486
1019 2.9562048229400668 2.787119175944885 3.2446728883995317 203 199 196 0.4333760394685866 32 1046 39 1212 29 585
1021 -0.040858944217492581 4.0067255468362557 2.007739911449852 177 173 170 0.22239491827647781 28 1338 29 612 26 1160
1127 1.4939919298526618 0.79034392324281955 2.6283860855302019 178 169 172 0.67846443716051386 27 858 26 1286 23 250
1022 1.1868865600653598 1.3451398533836991 2.3095097979382953 161 150 149 0.53944771588659635 30 1009 39 1292 29 674
1612 0.93312477154823004 0.74624261354388788 3.8568957318790695 157 151 155 0.58505444485322977 12 461 10 289 9 540 8 595
1023 0.79161037118795685 1.6078154466640364 2.3167704137343392 199 193 196 0.63565812216971507 28 1236 29 681 40 31
1024 -0.10799091373408307 2.8061565524026593 3.1918529054178393 182 181 177 0.95098470193434415 28 1285 38 1135 29 698
1968 -0.11496823063853653 2.8532634546343063 3.0676804887554585 228 227 222 0.91977149729391083 4 780 5 1095 7 548 6 415
1025 1.1800009102786966 3.2673023357298883 4.1909793086717286 149 145 133 0.040382862835007652 33 810 29 705
1972 -0.54825983863630179 3.1707310970017382 2.8333629797736766 178 177 173 0.45089696156140113 8 310 5 453 7 153 34 1304 35 1247 36 1236 37 788 33 811 32 1049 31 1006 38 977 30 892 39 1064 28 990 26 1094 27 766 24 232 17 1080 18 1987 14 482 15 878 10 779
1029 1.3169157930267621 1.3264131522373528 2.2923105162677886 177 170 168 1.876641217972578 30 1101 29 803 27 989 28 1465 26 1396
1030 1.1445418449979308 1.6719906171328816 2.2612520130454579 147 141 129 0.75253784733611417 28 1548 31 1217 29 809 27 1035 26 1504
1976 0.53325061174683464 1.6342036313513251 2.3093194448063405 155 144 127 2.4517423307238912 10 884 7 80
1033 1.1371582464983403 1.3692758359600519 2.3441934230150738 79 67 53 1.1114237621801355 30 1145 29 829 24 550 23 393 22 883 21 784
1036 0.60384567395898403 3.0824940134505168 2.7539503167692989 91 88 77 0.42561901591203904 28 1512 29 840 27 976
1980 2.8648723172125514 8.6633966442275057 -3.630967913898334 113 102 69 0.2624351756850678 4 16 7 185 3 307 1 96
1037 0.0719499956755104 2.4621700727212978 3.0548357186453736 225 222 213 1.6390497604669523 28 1579 30 1194 29 870 31 1278 32 1306
1038 0.49668982477677281 3.2231601037485271 2.7102447193906087 204 205 200 0.91489900614503517 40 505 41 429 42 436
1924 3.6597339417490202 9.4573335989993126 -4.4460979954324555 147 140 121 1.2583152337294961 9 923 4 710 8 858 3 693 3 728
1045 2.8660313152723029 2.8702310661992421 3.1607890903246219 176 176 171 0.325763676988162 32 831 30 704 29 588 39 1076 28 1353 41 274
1928 3.7247157924686367 8.2444597227661891 -3.0016315829083808 212 206 170 2.0950874417423275 8 1013 4 739 6 335
1049 1.2556478928344867 0.98643348406473197 2.4584613227303813 163 153 150 0.36309834480371178 28 33 27 27 26 16 24 203
1052 1.9712536764267283 1.2198441789529084 2.694676648243481 164 153 159 0.32123991009669212 28 183 27 129 25 64
1932 -0.15601637270470481 2.6373344376266132 2.9912216509662382 83 81 66 1.7424921078300102 8 1061 4 779 9 1063 7 546 3 787 2 226
1053 1.1066745848342234 2.093114064626862 2.2870761965677207 88 78 76 0.91819869907193841 28 934 27 207 26 265 25 361 26 260 41 185
1056 3.7323576132155614 1.9048044923668719 4.1223790648318124 221 220 216 0.7574729401123107 28 1051 27 365 26 483
1872 2.6201852729353923 9.0998595765189254 -2.7176099175783639 137 135 122 1.1148869180136978 8 1023 9 1013 5 1049 4 747 3 766 6 371 1 315 2 209
1057 2.4139038268197694 3.171530907617246 2.8306374674692658 177 177 169 0.62266363874603203 28 725 27 395
1064 2.0339184636454681 1.56387075418345 2.6363843725353218 185 179 181 0.27497974257111929 28 917 27 527 26 730
1880 2.8563336294450217 9.2232042526158402 -3.250871922990807 126 124 112 1.2657070788646287 8 1057 9 1057 5 1082 4 773 7 543 3 779 6 411 1 336
1065 2.2853439433387144 1.3804778883445028 3.0768192862802346 151 140 146 0.28068064253852132 28 912 27 528 26 1090
1071 1.0984186265722555 1.6557013037476302 2.2523330031799307 218 195 154 0.33255546666242564 29 515 27 726 41 172
1072 1.8782022288474656 1.657195872472871 2.5330745595782429 188 182 184 0.3252703523172733 28 1268 27 755 26 1087
1952 -2.0028564756127558 -1.3553513964401944 4.1513799379918765 210 209 205 0.35453598520924934 4 593 7 384
1073 2.1268179434674646 1.6134102333271063 2.7844341531304839 164 155 158 0.35343256129761591 28 931 27 759 26 1096
1075 0.5374297148849998 2.5644939140267367 2.7820912513237372 0 0 0 2.1556341415637923 29 697 39 768
1956 3.6189030624425613 9.4607568747108406 -4.3050594665327893 105 96 68 1.0999390726951572 8 945 9 924 7 447
1077 -0.87368206164834017 3.7516968579123171 2.2507212655782802 141 137 134 0.15211082450098307 37 989 27 772 40 287
1080 1.3479913873120577 0.92501848164315614 2.4510394945389065 178 170 159 0.32185458883391443 29 495 27 859 25 744
1081 1.1401291905131832 1.2130411696175361 2.218165130778099 101 93 83 1.7129936966016472 29 500 27 865 26 1293 25 749
1082 1.1171422445615455 1.4208417116802279 2.2713168430729538 255 251 227 0.52076833035574766 28 1230 27 873 26 1304
1089 1.4259721733427808 3.7426147698530938 2.2785063033673181 214 213 209 0.60865232444143635 38 1252 27 927 26 1365 17 935
1090 2.7015771185303654 3.0730610944204733 2.9291024509560124 167 163 152 1.2562002791404985 28 1364 27 928 40 222 41 137
2036 1.6971041049770781 1.75721875752329 3.7529795620997146 0 0 0 0.66139156531861498 1 366 3 813
1093 0.52290686410279674 1.3395102626787219 2.5929176067622581 187 186 181 0.88932663025338965 28 1462 27 942 26 595
1096 1.1600934024820388 1.5169791325971338 2.249999941543277 46 31 10 0.65733764943359319 28 1496 27 990 26 1460 25 760 24 488 23 330
2040 2.1890925550064226 0.33835343916239546 4.1235402517769861 227 226 224 0.97865341737841949 3 814 2 268
1097 1.5270734227939369 1.317970279406109 2.4213043746145386 147 143 144 0.79097311621516864 29 805 27 1009 26 1461 25 856 24 533 41 381 42 383
1098 1.1498102979141631 1.7356545267381347 2.2648191386486025 159 148 142 0.37277655122672299 29 787 27 1014 26 1485
1101 1.5631060362965206 1.2424732723830865 2.4674708205183049 183 174 177 0.88168297614772428 39 1331 27 1030 26 1501 25 875 23 396
1103 2.4178913292565487 1.540218002027713 3.2959396983072549 173 167 167 1.7158786209961236 28 1554 27 1043 26 1531 25 893 24 573 23 420
1825 0.20084344088728376 1.3132681091049658 3.2658983347694801 175 171 172 0.4408256834746323 10 338 5 319 4 188 8 209
1104 0.65064599831803116 1.8908383096758745 2.3466962915812601 100 86 60 1.3775623529602636 28 1576 29 867 27 1071 26 1540 25 902 40 497 22 904
1988 3.4929667685247643 8.4226576427473479 -2.6596454530656315 110 109 81 0.15947493107769509 5 972 3 637 6 288
1109 3.1848192363191421 0.60289865276578913 5.3200346296615502 188 187 183 0.62461333126510332 27 202 26 297 25 364
1110 1.799750111786528 1.8679079062717723 2.4708440528912967 150 144 146 0.31101957673388636 38 154 39 196 26 314
1833 5.865365604581541 8.9814853531981047 -2.8936514798726063 142 141 120 0.84613254935770787 10 864 5 569 7 17 6 89 9 40
1112 1.7151004078627297 0.93137943433447001 2.6119514160015593 135 124 130 0.34288952989629951 27 50 28 61 26 608
1992 3.1915376011059138 8.7698918525764782 -3.8199497112953851 111 102 73 0.47547019450673589 5 1004 3 729 2 187
1113 0.67295009463349198 1.5575256784480473 2.3163096282738151 96 83 62 1.0026052853823932 28 97 26 609
1837 0.59309900510725089 1.9410236734513664 2.3235069232324848 146 138 135 0.61787849023896269 8 86 9 723 5 616 7 232 6 35
1116 1.2386023634016861 1.813454373993963 2.2416895572395759 144 128 104 1.5126793309548132 28 270 26 692 40 166 41 254
1996 -0.11558470712046878 2.8671429929761949 3.0769874345476502 228 224 218 0.54721808546406925 4 781 3 793 1 347
1117 1.2354547876014419 1.9041573149341098 2.136434959694002 59 45 16 0.48341934557393323 27 514 28 302 26 712
1118 1.8352579631305324 2.0027332071129011 2.5256451907363742 169 163 165 0.22162681812841326 27 564 28 443 26 775
1936 4.9056540532415527 8.2802758474590306 -1.862356728922884 164 162 139 0.47196320749554005 10 55 7 44 6 16
1121 1.5930003870215264 3.6482205455084245 2.1585800825113126 216 215 211 1.1910067274350242 37 297 25 482
1122 0.72335728198333105 1.5582344035561582 2.3225172780356349 97 86 80 1.7756841819948981 39 1169 26 1027 40 328
1124 2.3454539684519315 1.7579317596605173 3.0269886015836636 138 129 130 0.63087470153593728 27 768 26 1123 25 688 41 189
1940 4.260524738146521 7.8140159957020252 -2.6585982758736804 193 188 159 1.1809442002620969 10 561 7 188
1125 3.7271973525351063 1.9256360260461634 4.0944170294759159 179 178 174 0.44433741876505517 27 791 28 1056 26 1186 25 710
1126 1.0174214832636168 3.8469170306495544 2.1752522019036169 215 211 208 0.29931946553778427 28 1378 26 1206 24 394
1130 1.1218529538696127 1.9387272329931102 2.2260449349704832 34 20 0 1.3741917336374758 27 889 26 1319 25 670
1132 2.2713327771229128 1.743163533589315 2.9191158738619585 172 163 166 0.35938642042120733 27 904 28 1283 26 1335 25 791 24 452 41 320
1948 4.8985381171603075 8.543651113894871 -3.0764714501233201 197 192 164 0.99487451592068155 8 473 7 313 6 162
1133 1.0712422067792895 1.4782981745308759 2.1925327863497621 54 41 24 0.53619992648972115 27 947 26 1394 25 757 24 487
1134 1.1250025053136623 1.454401189152978 2.2024341027811492 47 34 3 0.2418968055410439 28 1412 26 1395 25 758
2016 4.6261401887601572 8.206705843991589 -2.8687625756650572 202 197 168 0.93814784317989774 9 23 1 101
1137 2.0822045897777737 1.2490239081688361 2.7558708214818224 129 118 124 0.58595028055574094 27 957 26 1412 25 773 22 799
1138 2.1072325578104949 1.2669094910776117 2.8036852261497645 149 138 144 0.96618520061188951 28 1421 26 1413 25 817 23 340 22 801 21 706
2020 1.5522838813809561 1.2743514542940799 4.5227266427261199 173 166 159 0.33137837921700619 3 665 1 262 2 155
1141 2.0205295320201797 3.6115347649235741 2.4101726606768321 220 216 213 0.33950678899781622 36 1435 26 1446 35 1492
1144 1.25615020038699 1.886317130157501 2.180373243847773 72 59 39 1.0294854601512906 27 962 26 1462 25 840 24 515
1145 2.3058066359082821 1.283436206508926 3.1727669872375328 154 143 149 0.55940775301841505 28 1477 26 1465 24 542
1150 1.2671953779495035 1.9045642840370089 2.2842878986820656 172 162 160 1.5108064862978587 27 1016 26 1509 24 537 41 384 42 349
1152 1.2209824276126782 1.1541414366024834 2.4092256223334032 80 65 40 1.905801505690643 39 1370 26 1547 25 908 42 428
1813 4.4512089338270711 8.0641078783539211 -2.5093532587330158 160 154 119 0.93558907214650688 8 483 5 28 3 317 6 172 1 190 2 85
1156 0.9316852582942855 1.7738439851105245 2.1769233345699197 78 65 61 0.14922677818136881 27 1013 26 1503
1160 1.1250476010208439 1.5464599751507064 2.2152924676411083 108 93 70 0.33252093348361728 26 1039 25 503 24 214 27 468
1161 2.3302425592993474 1.3425804717113856 3.1770254892825647 177 166 170 0.65137398938358171 26 737 25 526 24 354 21 625 22 724
1165 2.3775206141169103 1.3135987761377041 3.5286254546102902 146 140 142 1.1136775453288981 26 1329 25 785 24 444 23 343
1166 0.15084910258029616 3.1620906492567817 2.7225987671815322 153 151 138 0.84467707640940415 26 1435 27 974 25 790 24 356 23 209 22 396 21 149
1889 4.7553031936287802 7.3727991493784142 -1.2352900592826093 209 204 198 0.25276522821066277 9 68 4 59
1168 2.2934401612293178 1.3278144718684615 3.0955551478098724 174 163 169 0.69843589644495585 26 1424 25 824 24 500 23 342 22 830 21 741
1171 0.89199953897068396 1.7320581588456192 2.3915669838849758 86 73 39 1.4720804271964156 26 1556 25 917 24 588 40 515
1893 0.627536218772907 1.2266783768222747 4.5967782002550965 187 183 180 0.31510262151164531 5 531 4 290 3 234
1172 1.2592031320474755 1.8496991282718276 2.2832991516801275 170 158 152 0.83056351164542508 28 1259 26 1318 25 776 39 1180 27 887
1173 0.65607839022200631 1.6003021104689457 2.4022086757511758 133 121 109 0.80641530515222559 25 639 24 206 22 536 21 423
1174 1.1333989828611826 1.3447260236864926 2.2310820460085043 118 106 93 0.32273410439331679 25 498 24 208 23 83
1897 1.1342760283094091 1.110769161657948 2.2367144952030755 109 91 55 0.28380251293349779 5 587 4 323 7 323 3 301
1176 1.085075290571063 1.5200493919720874 2.2065347653255727 65 52 35 0.53669951728042631 25 650 24 331 23 194 22 550
1179 1.0098389552255553 3.831028550256578 2.2030003556196682 167 166 162 0.2868594485967611 25 588 26 1360 24 393
1901 5.2430840523540301 8.6168333654944735 -2.1395738684594838 184 179 157 0.29248306957047204 5 580 4 341 6 99
1180 1.175067848511739 1.0847588918515907 2.329012986674996 169 163 147 0.63508226315009397 25 634 24 416 23 252 22 530
1181 1.7916220793311606 1.0019741445228647 2.6479859831586321 177 166 172 0.70405200746580476 25 814 24 428 23 360 21 787
1182 0.72185023878258148 1.8059765518731239 2.2998102181044722 83 59 31 0.1054495679146441 25 761 24 429 23 269
1841 3.5043542948301543 8.1849602331513047 -3.1648768994826297 174 169 127 0.58316460258120695 8 465 5 784 3 305 1 98 2 75
1184 1.2763474696594239 3.791339811863943 2.2507689217778384 190 189 185 0.20282966783479037 25 717 26 1362 24 468
2004 1.4700617311265194 8.2454128429514508 -1.8943606624653158 180 177 170 1.0280488281531728 5 1021 8 1025 6 372
1189 1.1659940330366234 1.836993773920431 2.168348353292473 255 246 211 1.3441835638120809 29 764 24 495 23 278
1849 0.65393465366536097 1.219729411946008 4.6017936148412089 219 214 210 0.81025228708246111 9 773 5 895 4 446 3 573 1 161
1192 2.2043100989750624 1.5466258378183586 2.8822650881150684 127 116 122 0.75964325766888863 25 826 24 522 23 363 22 831 21 743
1195 2.6672050934157054 1.7848811782843497 2.8799101167071859 204 199 193 0.34510204441689263 25 866 24 545
2012 -0.01901076820182844 3.0997345716503775 2.6769944901716776 194 192 185 0.71224729980870549 5 947 4 637 7 359 6 327 12 767 11 1347 10 1212 9 992
1197 1.2655673532034677 1.0379612032832122 2.4266336666018709 196 183 177 0.82150113330753549 25 853 24 548 23 389 22 901 21 804
1793 5.3457512106106924 8.4885034551352874 -2.2396371225789737 215 215 187 1.3801816636461617 11 1362 8 998 10 1250
1200 1.4544678543590548 0.6909237122811781 2.6703767412925621 92 87 83 0.34875295552810887 25 898 24 576
1203 1.1383901585784144 2.004760578878793 2.2572347004357791 91 79 67 1.9809021545879364 30 1193 29 869 26 1550 25 911 34 1616 38 1316 36 1504 37 1100 33 1043 30 1173 39 1368 40 502 41 425 42 423 28 1578
1797 1.541359105342857 0.74482111721843303 2.578518169149342 224 220 219 0.66935919366601904 9 1048 8 1046 3 778 1 335
1204 1.0588326070486869 1.9982315358000644 2.1989676837531862 109 96 77 1.6762411345173704 28 311 29 97 40 67
1205 1.0451667066657766 2.0727606782200407 2.1700203685591632 62 50 24 2.04809008933033 30 218 39 690 40 75
1206 1.1020631923803921 1.6536257771817136 2.2493867004327344 211 199 155 0.41384919543431581 26 657 40 153
1211 2.7505989319369704 3.1236403199381781 2.9285107948447249 215 212 207 1.2124385497488162 26 1473 40 449 41 398
1213 0.44722379025940451 2.4060110244075279 2.7769749170794849 142 132 130 0.42935580814605112 27 1080 40 509
1214 1.0294677362702327 2.1626511167730937 3.2353006311312176 133 127 129 1.9020447806764689 29 883 38 1350 40 517 41 437
1219 2.7442507384210097 2.9847559848505787 2.8290313104192717 189 185 174 1.4435776772878472 29 438 40 291
1877 3.0371492148542725 8.7183196718236786 -3.5838174858861844 146 137 94 0.86704550241991007 8 1011 9 1002 5 1061 4 737 3 749 6 380 1 311
1220 1.26534099498487 0.91637057676582234 2.4353480993559122 80 70 62 0.33984722187942484 25 287 23 126 22 65 21 69
1222 1.07503520729563 3.0243596155747081 2.6641580007863137 176 173 164 1.2233966113741579 25 693 23 160 22 198
1227 1.1676149657599943 1.4550773782217661 2.3051805413112549 106 90 65 1.0731873575632671 25 651 23 268 22 707 21 694
1885 4.0125750403865021 8.3110961231875606 -2.8513266365345027 205 203 175 0.70492464209633887 8 1067 9 1076 5 1102 4 790 7 557 3 798 6 424 1 352 2 249
1228 0.7226499015078669 2.0292793745640418 2.2432692190412165 89 82 65 1.5473042064129472 24 493 23 274 22 791 21 699
1229 1.1448036922604468 1.4175365688597494 2.3081129787195382 146 132 114 0.38719100750291302 24 425 23 327 22 785
1230 2.2492874332594859 1.5675296471903728 2.9107482594470246 154 143 149 0.34220962314922626 24 502 23 345 21 744
1235 0.5350309259144983 2.5470166384986275 2.4675041015978025 233 231 219 1.8171076960390755 24 584 22 937
1957 3.2602930421465199 2.7933237372585573 4.9324567678439921 171 164 156 0.54285308360928242 8 925 7 476
1236 1.8790199771285834 1.2306375016355184 2.6627285292172993 141 130 136 1.1416313587919884 24 585 23 426 22 939 21 840
1237 1.2484304023714967 1.4878540858728879 2.3372654374962258 161 151 154 1.7860537400639407 32 1287 31 1254 30 1172 29 865 28 1574 27 1069 24 583 23 423 25 909 26 1548 22 936 21 832 41 420
1241 1.3574343347511924 0.92478798599062617 2.4471812933237644 172 163 149 0.28600399072665544 23 251 22 684 21 594
1243 0.73409129053038147 1.9270057647963947 2.3042718890887968 255 246 216 0.62075363138078155 23 273 22 709 21 695
1965 0.52167155200621573 2.1130424139050641 2.4331145109315151 189 185 184 1.1730744764353078 9 1016 7 513 6 393
1244 2.3979910314232851 1.4059889517056987 3.5612708956817842 169 163 163 0.39416565031577594 23 214 22 727 21 628
1245 1.1049660924781617 1.112789258711455 2.3010815207121156 196 190 187 0.5741286476036066 23 323 22 773 21 679
1246 0.71191663516045656 1.9535608964168798 2.2690552668515744 47 32 8 0.50350957255509599 23 379 22 853 21 730 22 823
1905 0.21984418013535872 1.2706081869471464 3.3530467074559089 171 167 168 0.18709747663136056 8 222 4 394 3 122
1248 1.4104812517180707 1.0027611801007379 2.4377502114430962 187 175 175 0.90979216332975155 24 528 22 880 21 756
1250 0.39992612491785745 2.9635816145795424 2.7744864884976153 60 58 46 1.6936905012265915 23 407 24 570 22 908 21 793
1251 0.31747756164421315 3.0434390941842882 2.8581369157220005 60 58 46 0.3366307905096631 23 408 22 909 21 792
1909 0.93800909375657704 1.2598395490169747 4.5626710673590747 111 102 92 0.2664639320860972 5 741 8 643 4 440
1252 0.80956127824852664 1.4106295317238999 2.3118553518468632 113 97 74 1.450967785921021 23 422 22 929 21 827
1253 0.87495726017455933 1.5512322428383654 2.2900370491002762 192 184 185 0.50184915030215338 23 415 24 581 22 931 21 830
1913 4.9219314058019306 8.3027234461198631 -2.1807399918400794 209 207 169 0.25704821357190616 5 798 4 508 6 178
1256 2.335072747845671 1.3352822844944663 3.222058232208076 136 127 132 0.4104551546468107 22 422 23 210 21 505
1258 2.5581497986660837 2.0094291606444559 4.0234949502663868 222 217 209 0.41354967786565755 22 808 23 219 21 639
1259 2.5055732271017055 1.552957308328045 3.9394282313387294 214 211 202 0.12946866506367774 22 892 21 799
1917 6.8215547657742972 8.6264483572941479 -2.2628163509117591 166 163 154 1.1719697483831253 5 572 4 604 6 232 8 493
1260 1.188162721573411 1.3563030444774595 2.377604703691746 129 116 107 0.98295066627638716 22 334 21 106
1261 1.2972732981985433 1.1082834122868701 2.3971134429778109 163 150 128 1.0092673529997687 26 30 29 29 41 4
1262 1.5524671193403095 3.0607795938627964 2.9369339954125517 0 0 0 2.0751025967544603 27 788 29 572
